ply
format ascii 1.0
comment VCGLIB generated
element vertex 737
property float x
property float y
property float z
property float nx
property float ny
property float nz
element face 0
property list uchar int vertex_indices
end_header
0.01087922 -0.01819566 -0.03532068 -0.04674118 3.559565 -5.164961 
0.07884366 -0.06132345 -0.07794397 0.6873158 -6.177001 -0.8596747 
-0.1951735 -0.02054736 0.03229416 -0.5792759 2.295557 5.79099 
0.3310155 -0.06581825 -0.02382824 1.629254 -3.272173 -5.064197 
0.30038 -0.01019274 -0.01835097 0.8964062 5.320128 -3.139867 
0.1472172 -0.03801579 -0.04318314 0.008843261 0.9109589 -6.183557 
0.1286778 -0.06292064 -0.09630063 0.2372822 4.353938 4.421227 
-0.2988917 0.007271399 0.006993433 -0.4789957 -0.05231139 6.257979 
0.03314413 -0.0614178 -0.1068015 -0.3928022 -5.364733 1.912891 
0.05286523 -0.06575353 0.06795889 0.2135147 -6.186985 1.031857 
0.2189876 -0.0002844447 9.225219e-05 -0.1566602 6.239658 -0.0408109 
-0.001706752 -0.08157455 0.02136528 -0.0105354 -5.288439 3.375793 
0.03403454 -0.07065994 0.07447407 1.827541 -1.437722 5.751889 
-0.3477331 0.06692334 0.00476726 -0.6935642 -0.2806378 6.208733 
0.08538425 -0.05428893 -0.1157966 0.9223852 2.780838 -4.836495 
0.1870181 -0.040611 0.04357664 0.001988739 0.1885723 6.227425 
-0.3180783 0.01985233 -0.005611144 -0.5129429 -0.3574066 -6.245885 
0.153951 -0.04741478 -0.04316993 0.0007691383 -0.8702906 -6.197338 
0.1236585 -2.378208e-05 4.258059e-05 0.001140035 6.264656 0.2031613 
-0.1589227 -0.07813262 -0.00259915 -1.037967 -6.153899 -0.3389566 
0.02731651 -0.03588659 -0.1953154 1.662758 5.969465 -0.4656404 
-0.2982354 0.04362669 0.00672714 -0.0522665 0.02584686 6.282467 
-0.004917248 -0.05449289 0.1640342 -0.2587717 -6.255271 0.4948421 
0.1435331 -0.09092706 0.1009176 5.374887 -1.05515 -0.8412658 
-0.09421046 -0.002799812 0.01651177 -0.02797893 5.806023 2.352837 
0.1215932 -0.0009152437 0.007124431 0.008448632 6.19846 1.02482 
0.07023717 -0.06665732 0.05498327 0.5508984 -6.176139 1.01244 
0.0754713 -0.04368087 -0.05892856 0.002024764 6.27002 0.3997008 
0.08808646 -0.06574595 0.04903309 0.8945633 -6.101924 1.177738 
-0.06949399 -0.04765072 0.04282831 0.4093497 -0.7568174 6.189301 
-0.05450547 -0.05482009 0.04113187 -0.400894 -0.994815 6.184586 
0.0004285909 -0.04932921 -0.2124402 1.471368 -5.992537 -0.7616882 
0.02280034 -0.01589552 -0.03365289 0.1570671 3.750873 -5.019609 
-0.3046945 -0.01035165 -0.06985247 1.792832 5.889839 -0.6660323 
0.1379428 -0.0756793 0.03001076 -0.005647075 -4.691691 4.146033 
-0.2008247 -0.02745902 0.03354295 -0.5410763 1.100418 6.155905 
-0.3134414 -0.01294513 0.02565684 0.5850508 6.224175 -0.5019539 
-0.3476855 -0.01681593 0.07552136 -1.164843 -6.15874 0.3436761 
0.004242771 -0.05367095 -0.1624026 0.2189955 -6.14352 -0.7112032 
0.275362 -0.07415952 0.02917635 0.6499839 -4.325535 4.431016 
0.07267293 -0.05080084 -0.1239382 4.384847 -2.44643 -3.202473 
0.1695767 -0.003479418 0.01625383 0.008970756 5.590031 2.789773 
-0.1194736 -0.01257421 0.02997047 0.2251194 4.649549 4.189733 
-0.04932692 -0.04149095 -0.2417396 -5.154206 1.141414 2.363158 
0.02977536 -0.03616576 0.1850711 0.8964457 6.176049 -0.0514225 
0.03608455 -0.07493082 -0.03098555 -0.007393723 -4.767426 -4.031663 
0.07999671 -0.06265808 -0.06845851 0.9579915 -6.074042 -1.277743 
0.2808766 -0.003775052 -0.006253304 0.9351164 6.070458 -1.267081 
-0.02543419 -0.03540411 0.2266303 -1.025317 6.11895 -0.9822178 
-0.3346161 0.1179532 -0.001442473 1.581746 5.409365 -0.8453488 
-0.161967 -0.0445843 -0.03847323 -0.5815117 -0.8510757 -6.18082 
-0.04956027 -0.04982203 -0.2153044 -4.653052 -0.4124711 1.036696 
0.01770068 -0.03471833 -0.2144948 2.183311 5.719151 -0.7524956 
0.06606331 -0.06131954 0.08977334 0.745847 -6.155442 1.000584 
0.05162912 -0.084168 -0.01632876 -0.4833266 -5.773416 -2.087578 
-0.02215748 -0.05215648 0.1709754 -2.452822 -5.247715 -0.2041837 
0.1808542 -0.05027036 -0.04266335 0.0005155434 -1.299761 -6.127942 
-0.3068124 0.07296925 -0.006421833 0.1080565 0.1188868 -6.277269 
0.1122323 -0.05319002 -0.1110667 0.8289281 5.841052 0.1543251 
-0.03880128 -0.04048242 0.04328058 -0.1840302 0.5780897 6.20371 
-0.0500123 -0.02919984 0.2972283 -0.9933051 6.123632 -0.8667943 
0.2226071 -0.08679834 0.005748607 0.05945021 -6.123051 1.370466 
0.2811771 -0.003708544 0.005946545 0.9372383 6.074077 1.247097 
-0.03283668 -0.03647473 0.2282079 -1.121988 6.097919 -0.9880461 
-0.05017886 -0.0864526 -0.006698914 0.2977808 -6.069906 -1.4063 
-0.1884537 -0.002444494 0.01442639 -0.01241359 5.697743 2.570828 
-0.2474002 -0.03155752 -0.02687299 -1.139241 -0.5565314 -6.111303 
0.1074481 -0.076959 0.1320458 -0.9351343 0.4986473 6.018177 
0.008248307 -0.03520877 -0.1963836 -0.6263151 6.211826 0.6827971 
0.3054423 -0.01436736 0.02248161 1.024349 4.293035 4.444058 
0.2029774 -0.001442759 0.008429886 0.004027156 6.177172 1.139054 
0.04690759 -0.0616551 -0.09529589 0.2060016 -6.266051 -0.3587406 
-0.3332112 -0.006211094 0.1014472 0.3211416 6.239467 -0.5483842 
-0.02777544 -0.0292997 -0.3058244 3.014907 4.87292 -1.775045 
0.07117371 -0.04176829 -0.1074323 1.151613 6.145264 -0.2288253 
-0.3024653 0.05790416 0.006549041 -0.1460522 -0.03532271 6.279731 
0.3540119 -0.04096572 -0.01941612 2.739766 1.452639 -5.429604 
-0.03365345 -0.04586851 0.1955965 -4.816812 0.8120013 -1.423859 
-0.1508935 -0.06751811 0.02882129 -0.6438902 -4.4913 4.05356 
-0.04999871 -0.03999022 0.2443999 -4.46292 2.273573 -2.474289 
0.02008249 -0.04664283 -0.09408379 -1.041269 6.130288 0.7824407 
-0.1036968 -0.03621738 -0.04196075 -0.3443421 1.125867 -6.148051 
-0.106559 -0.006852834 0.02250223 -0.2100563 5.295092 3.358668 
0.03887586 -0.06782523 0.06844985 3.069202 -5.235145 -0.3418777 
-0.02829178 -0.04713922 0.2487659 1.038293 -6.056368 -0.9842559 
-0.03273313 -0.02958502 -0.277434 -0.7741444 6.188449 0.6290699 
0.07539235 -0.08299376 0.1232777 -0.8182948 -2.279991 5.12119 
-0.2798721 0.0217916 -0.007519727 -0.1566572 0.2781979 -6.27366 
0.1509106 -0.02612734 0.03978424 0.006133159 2.522208 5.737364 
0.3067752 -0.02308892 -0.0283989 1.341863 2.989263 -5.35431 
-0.2540653 0.001635847 0.009329335 0.09239612 2.552287 5.605402 
0.01102022 0.0001423053 -0.001596741 0.01241112 6.256272 -0.1715669 
-0.04479856 -0.01568807 0.03296826 0.250096 3.411662 5.153606 
-0.2969689 -0.01146725 -0.03944781 0.6329027 6.244301 0.2315031 
-0.02404062 -0.04975922 -0.2056288 0.001458872 -6.201963 -0.07789269 
-0.3464811 -0.01646404 0.08747402 -0.6342663 -6.243279 0.122545 
-0.2953658 -0.03730415 -0.01167074 -1.603076 -4.829993 -3.634817 
-0.1171961 -0.06178139 0.03704879 -0.0977479 -3.543963 5.095772 
0.02562755 -0.08086432 -0.02250733 -0.008337663 -5.203095 -3.502963 
-0.3350243 -0.01332731 0.1184614 2.125195 -4.454565 2.480354 
0.1314856 -0.01086718 0.02887929 0.01382927 4.898242 3.907054 
-0.03498605 -0.0288655 0.2857926 -0.2565289 6.207459 -0.7081726 
-0.3114491 0.04341589 0.006508967 -0.1469494 0.1357805 6.275013 
0.01344353 -0.04548556 0.1130794 -1.326405 6.019135 -1.129483 
0.04995709 -0.04336294 -0.08649129 -0.714673 6.193208 0.6589189 
-0.04416568 -0.04086103 -0.2942975 0.1637607 -6.205668 -0.3215235 
-0.06267251 -0.04447459 -0.3106735 1.539102 -3.934788 1.914589 
0.0822985 -0.05445674 -0.1056757 2.961968 -0.6830185 3.741593 
0.05217692 -0.04009949 0.120209 0.003585966 6.271566 -0.2334945 
-0.1778149 -0.003913073 -0.01712393 -0.07136615 5.531537 -2.906769 
0.05557616 -0.04692941 -0.04482731 -1.014358 5.25208 2.167902 
-0.07364884 -0.08689831 0.003024594 -0.3329749 -6.205492 0.6251385 
0.0971059 -0.07321573 0.0931951 -1.129331 1.706363 -5.883316 
0.292918 -0.04059623 0.03800733 1.099722 0.9556022 6.047047 
-0.1255758 -0.01004202 0.0273047 0.2515847 5.084178 3.670429 
-0.3153877 0.006512442 -0.005189504 -0.2098303 -0.2503811 -6.214684 
0.3399442 -0.07289308 -0.008673963 2.105052 -5.663521 -1.619524 
-0.199475 -0.0663064 -0.01361235 -1.391556 -5.649846 -2.314492 
0.1768328 -0.04185195 -0.04355483 0.001353561 0.1599119 -6.242225 
0.03307677 -0.09412859 0.07922748 0.2668433 3.957025 4.293967 
0.2120773 -0.08732225 -0.003527948 -0.01602542 -6.197813 -0.7493966 
-0.3125428 0.005321018 0.004527985 -1.17231 0.3820689 6.060115 
0.07204825 -0.04375177 0.1197945 3.6268 4.707628 1.468434 
-0.01012987 -0.03789063 -0.04321566 -0.0004626932 0.7901284 -6.210821 
-0.3348597 -0.006552825 0.09819908 0.05975905 6.243989 -0.6194758 
-0.009126328 -0.07518829 0.03018607 -0.02329939 -4.878593 3.952279 
0.05039955 -0.07905331 0.1131941 -4.706581 -2.412557 -0.02201369 
0.1367604 -0.07762135 0.1143791 5.365247 0.9831982 2.162704 
-0.100394 -0.0002958627 0.005485632 -0.07257885 6.188807 1.055235 
0.1395704 -0.02872645 0.04081374 0.01168101 2.072974 5.921408 
-0.1081625 -0.05080471 -0.04124792 -0.331315 -1.266145 -6.138546 
-0.3282632 -0.02219042 0.02099932 -1.359044 -6.102632 0.5231788 
0.04001557 -0.03870614 -0.1404424 -0.2328296 6.24543 0.5838846 
0.08014955 -0.0151676 0.03312224 -0.01927845 4.168327 4.647418 
-0.06426165 -0.03782926 -0.2904633 -4.476056 -3.276846 1.235041 
0.03365571 -0.0706901 0.06517641 2.719039 -1.642495 -4.956006 
-0.04058433 -0.04721949 -0.2257365 -2.187889 -5.125016 -2.146034 
0.09628795 -0.08341937 -0.09279734 -1.253238 -1.136367 5.956428 
0.2229349 -0.002779747 -0.01257565 -0.1175368 6.1532 -1.16859 
0.1633996 -0.08142026 0.02222374 -0.09074152 -5.16836 3.556392 
-0.05231797 -0.03937622 0.2929668 -0.04872379 -5.51616 0.3105736 
-0.007287655 -0.03337321 0.2244715 -0.509285 6.248744 -0.2109408 
-0.02785535 -0.0390012 -0.2969263 1.222444 -5.984208 -1.268441 
-1.500989e-05 -0.03878425 -0.1765138 -1.207255 6.057335 1.10204 
0.03704153 -0.1090081 -0.05339517 0.9375987 -1.517665 5.778474 
0.07959953 -0.07813103 0.124732 -0.8781891 -0.2592164 6.083772 
0.09145053 -0.05989292 -0.07245353 1.546269 -5.906537 -1.365709 
0.1997366 -0.08213906 -0.02118131 0.01235078 -5.284754 -3.352565 
0.001745754 -0.06551649 -0.06854903 -0.1437751 -6.213033 -0.712447 
0.01938746 -0.03486559 -0.1988082 0.4192525 6.261528 0.2298699 
-0.08124701 -0.001083762 -0.008899227 0.117203 6.032171 -1.733924 
-0.341198 0.08909718 0.005746388 -0.110786 -0.04890458 6.271338 
0.007721051 -0.04189967 0.147536 -1.442143 6.03375 -0.8717959 
-0.3123657 -0.01988652 -0.0751437 0.1474419 -6.214522 -0.835232 
-0.3592399 -0.0141024 -0.1144266 -1.239227 -6.086264 -0.2512136 
-0.3377015 -0.01985268 -0.05296225 -0.7951717 -6.227053 -0.1722346 
-0.2391963 -0.03466721 0.02784091 -1.014236 -1.100356 6.064506 
0.05925754 -0.04596693 -0.051617 -0.762982 6.088041 0.9637914 
-0.3614113 -0.009326116 0.1234304 -1.24403 -0.2040979 4.778039 
0.04685267 -0.06495686 -0.07401396 0.4949837 -6.162191 -1.021901 
0.1292401 -0.07721982 0.08992895 0.1884141 0.382671 -6.205426 
0.03354762 -0.04860015 -0.05817571 -1.112408 6.109124 0.9544393 
0.003912326 -0.06411862 -0.09393432 0.08643584 -3.723145 -4.958452 
0.06529164 -0.04288368 -0.08181715 -0.369221 6.23667 0.51759 
0.1700625 -0.08513775 -0.01400779 -5.183266e-06 -5.993546 -1.877463 
0.02668149 -0.05705369 -0.133648 0.2246047 -6.252047 0.06566645 
-0.0511107 -0.04995406 -0.254571 -0.7278184 -4.898778 -2.189555 
-0.1860036 -0.07197173 0.003558428 -1.600745 -6.00054 0.7965903 
-0.21481 -0.002283671 0.01347348 -0.04228269 5.676036 2.631907 
0.3091519 -0.08916433 -0.01046157 1.488963 -5.271095 0.126263 
-0.3214525 -0.02335471 -0.03010342 -0.789698 -6.217657 -0.3659794 
0.03946696 -0.04665843 0.06568633 -0.8006568 6.150585 -0.9777873 
-0.00215124 -0.05676483 0.05514669 -1.473015 6.020551 -0.8938904 
0.09511772 -0.09755427 0.1053985 -0.9012821 -5.521368 -2.537477 
-0.04647408 -0.04596047 -0.2413305 -1.864021 -5.460277 1.221122 
0.05684861 -0.02292723 0.03800201 0.05151892 3.176317 5.402731 
-0.0153129 -0.0390288 -0.1931408 -1.150585 6.08525 1.036873 
0.01837356 -0.06745343 0.0619795 -0.6873459 -5.678337 -1.502113 
0.09505056 -4.58081e-05 -0.002665089 -0.04454544 6.179922 -0.6095287 
-0.06084248 -0.08450519 -0.01495451 0.07056069 -5.946551 -1.990239 
-0.03658611 -0.03821192 -0.3065912 0.5200992 -6.165283 -1.086374 
0.3576508 -0.04422885 0.01828662 2.83139 0.8277732 5.525868 
-0.02626358 -0.01065973 0.02804179 -0.2150513 4.890643 3.934083 
0.3349975 -0.04445779 0.02763633 2.112492 0.3952321 5.857609 
0.06631488 -0.07819952 0.02666099 0.01977195 -4.894461 3.895366 
-0.3207921 -0.009252241 -0.05913924 0.04132439 6.262938 0.494467 
-0.2674104 -0.04920912 -0.0007146222 -1.78971 -5.978002 -0.0348694 
-0.136245 -0.03796204 0.04116791 -0.3754355 0.5931116 6.21315 
0.07624665 -0.05843394 -0.09377999 1.034306 -6.093415 -1.067679 
0.2177904 -0.01468174 0.03227727 -0.04856668 4.03605 4.766188 
-0.3387159 -0.01834402 0.07127447 -0.985394 -6.191303 0.3720793 
0.01856536 -0.03546983 0.2151649 2.494173 5.399652 0.9356235 
0.07014761 -0.08849978 0.01311546 -0.2398778 -6.122658 0.7046268 
0.04689168 -0.06264181 0.09209298 0.6621491 -6.127271 1.149025 
0.04127673 -0.1013343 0.08051545 2.991795 0.8173789 4.864391 
0.073027 -0.04209506 -0.0939621 0.4616901 6.255829 0.2160464 
0.1109822 -0.05739389 0.05261931 4.618329 -2.825728 2.505121 
0.1019132 -0.003408075 -0.01646379 -0.01840179 5.81777 -2.271036 
0.06510691 -0.06510402 -0.06548475 0.3530743 -6.133655 -0.8495908 
-0.0115816 -0.06171555 0.07092047 -5.067507 -2.046904 0.4453503 
-0.1131209 -0.003667115 -0.01533386 0.09495447 5.557127 -2.880964 
-0.3119615 -0.01064146 0.04805857 -0.09664288 6.243441 -0.6221381 
0.03457872 -0.110236 0.05329312 0.4208585 -1.808583 -5.799972 
-0.0542516 -0.03766044 0.2620974 -4.497792 2.258769 -2.055952 
-0.02483198 -0.03498667 -0.23094 -1.112517 6.101459 0.9868082 
0.0275899 -0.03703079 -0.1631931 -0.2085494 6.253644 0.4819344 
0.2824433 -0.07566127 -0.02689601 0.7536628 -4.951437 -3.756837 
-0.003142323 -0.04483276 0.2447239 0.8931522 -6.091331 1.106782 
0.007436105 -0.04943566 0.08963221 -1.351786 6.080384 -0.8116806 
-0.05208554 -0.02919814 0.299587 -0.9955199 6.128806 -0.8875325 
0.04679431 -0.01521664 -0.03281273 -0.1036365 4.414275 -4.448586 
0.0792963 -0.04501768 0.05223492 -0.1401104 6.207537 -0.7181829 
0.002964268 -0.07386264 0.03194546 0.02641438 -5.108202 3.63186 
-0.02409432 -0.04216756 -0.18347 -1.719061 5.916634 1.149293 
-0.04052445 -0.05433771 0.1830948 -4.17185 -1.003151 -2.137648 
-0.05118357 -0.03626843 0.2564108 -2.670872 5.397084 -0.8762803 
-0.01327995 -0.04778688 0.2279387 0.1934588 -5.991581 1.608562 
-0.2326716 -0.02104352 -0.0283065 -0.6013722 1.497695 -6.030181 
0.2101235 -0.0343303 -0.04240762 -0.01348136 1.608747 -6.057652 
-0.344123 -0.0175823 0.06956719 -1.196549 -6.148557 0.2322385 
0.3456922 -0.06393012 0.01813939 2.437906 -3.787052 4.365423 
-0.1355055 -0.06746086 0.03155591 -0.7476023 -3.803952 4.912722 
0.1414353 -0.08741587 -0.002495324 -0.1111824 -6.229587 -0.2657659 
0.07916532 -0.01018336 -0.02663314 0.01072473 5.033051 -3.75965 
0.09942055 -0.08595452 -0.0170161 1.011187 -5.39352 -2.832975 
0.2492989 -0.00385815 0.0162211 0.371832 5.817921 2.288712 
0.128203 -0.07056331 -0.1307779 0.3828047 2.434426 -5.738627 
0.07199519 -0.0230509 0.03807652 -0.1767135 2.996388 5.498845 
0.1294174 -0.06049235 -0.03998098 0.2058379 -1.834297 -5.996584 
0.1765625 -0.0539284 -0.04169152 0.001318402 -1.569898 -6.077554 
0.1187037 -0.05432304 -0.1120331 1.682361 5.691199 -0.9716146 
0.007863148 -0.0007463018 -0.007038045 0.09940085 6.05917 -1.648366 
-0.02415665 -0.03175402 0.2516606 -0.6467791 6.208166 -0.6593134 
-0.001956224 -0.06827862 0.04646531 -0.2826938 -6.215861 0.7992548 
0.05014512 -0.04068742 -0.1118571 -0.3447456 6.244618 0.5229932 
-0.332105 -0.009029478 -0.01201795 -0.7591377 2.613708 -5.649735 
-0.002937369 -0.05214538 -0.0916912 -1.21007 6.068826 0.8224392 
0.04302982 -0.04270206 0.09828727 -0.7054248 6.224445 -0.3397693 
0.03352213 -0.04988185 -0.04675544 -2.362274 3.109348 1.951051 
0.3099746 -0.07731727 -0.01763759 1.258759 -5.026445 -3.499481 
-0.0923046 -0.08543038 -0.003664345 -0.4228414 -6.207669 -0.5958636 
-0.1558051 -0.003679914 -0.01637183 -0.3551856 5.780267 -2.308711 
0.1875966 -0.01346041 -0.03152961 0.04748197 4.395857 -4.434518 
-0.3342687 0.04287698 0.004866009 -0.590996 -0.1798358 6.247726 
-0.1976454 -0.0008086276 0.009379593 0.08344956 6.066561 1.542061 
0.07684243 -0.0589077 0.09436776 1.179037 -6.044227 1.172942 
-0.3355699 -0.01782242 0.08622896 -0.7104958 -6.221784 0.4636633 
-0.05270946 -0.05051082 0.2514488 -0.9894631 -5.333477 -1.035499 
0.2913276 -0.06834745 -0.03148015 0.8768195 -3.331146 -5.250652 
0.01694492 -0.03625552 -0.1800473 -0.5270637 6.217008 0.7027718 
-0.03445635 -0.05116171 -0.04246284 -0.002928419 -1.450855 -6.104275 
0.00762238 -0.04355562 0.04352728 -0.02095535 -0.09910762 6.254903 
0.1081882 -0.0991336 -0.1074035 -0.4207022 -6.120562 1.099194 
-0.2961339 0.07402758 -0.005495782 1.442954 1.37922 -5.812791 
-0.2930176 -0.01370425 -0.0257541 -1.524378 5.67043 1.782431 
-0.08372209 -0.01065745 0.0286562 0.005181355 4.959743 3.808742 
-0.02075325 -0.04209874 -0.1800664 -1.488688 5.934756 1.229839 
-0.3172416 -0.008971562 0.0950113 2.995734 4.937756 1.522047 
0.08458251 -0.0545168 -0.0988712 3.697071 -4.115808 -2.505729 
-0.3268527 -0.006962892 -0.0884897 0.634144 6.231601 0.1965426 
0.1375705 -0.07039711 -0.1113337 0.8986529 -5.995517 0.4961655 
0.1427437 -0.08733758 0.1270374 3.824848 -1.58952 3.89212 
-0.3289769 -0.03018472 0.000408299 -1.834802 -5.942238 0.3942122 
-0.1036032 -6.50418e-05 -0.004905935 -0.07303725 6.160858 -1.029357 
-0.02947109 -0.03583806 0.2281061 -1.078671 6.112651 -0.9501703 
0.2541203 -0.08008255 0.02289245 0.2273563 -5.205626 3.499457 
0.08825319 -0.07662062 0.09561655 -3.162185 0.7093605 -5.255936 
-0.01904623 -0.05593122 0.1414415 -1.369846 -0.01051244 -5.905617 
-0.2557476 0.03335557 0.00447189 2.477469 2.528172 4.85791 
-0.0986154 -0.01568916 0.03299138 -0.2608287 3.77995 4.995022 
-0.2760062 0.005041842 -0.007904986 -0.4005339 0.9282271 -6.081013 
-0.02595425 -0.02881533 -0.2862735 0.4073996 6.221771 0.02040268 
0.0773901 -0.08643535 0.1211593 -1.30216 -3.109162 5.097039 
0.05242061 -0.04869131 0.1597656 4.147604 -3.845926 2.140741 
-0.01598466 -0.03930108 0.04342575 0.01121326 0.5915737 6.231392 
0.06298405 -0.04152053 0.0956487 -0.05053905 6.250002 -0.3407895 
-0.2338248 -0.006446608 -0.01914371 -0.2030127 4.861895 -3.920367 
-0.01895366 -0.06432436 -0.1442275 -0.1346508 -4.740459 3.560533 
-0.1103656 -0.04696599 0.04196429 -0.2166212 -1.097785 6.13606 
-0.3346862 -0.01608394 0.1063785 0.1345613 -6.211897 0.7575015 
-0.01227681 -0.05361964 0.1294964 -4.806819 -1.851324 -0.4414382 
-0.04536822 -0.03849334 -0.2390451 -2.758134 5.217391 1.620632 
0.2714772 -0.08249348 -0.01755828 -0.05813529 -5.614897 -2.738321 
0.01581859 -0.037647 0.04318545 -0.0004020308 0.833198 6.207282 
-0.3246202 0.100887 -0.006131044 0.4971485 0.5924442 -6.178161 
-0.1590998 -0.003239776 0.01570873 -0.1031564 5.808849 2.338985 
0.1699728 -0.08592497 -0.01124929 0.01126103 -6.097878 -1.45439 
0.02614429 -0.0417445 -0.1299821 -0.4853809 6.228122 0.4737148 
-0.3375466 -0.01990143 -0.05004811 -0.8946892 -6.20864 -0.1588134 
0.2130925 -0.0008996729 0.005642027 0.008301919 6.186719 0.9924879 
0.08475736 -0.05364586 0.1160209 0.9577831 3.260976 4.800869 
0.1373682 -0.08325726 0.1116193 5.8647 -1.160752 0.1163548 
-0.132154 -0.003093266 -0.01581805 0.06929079 5.744382 -2.383803 
-0.1164675 -0.07773285 -0.02187606 -0.3083466 -5.285773 -3.371513 
0.01592393 -0.06147001 -0.1014805 -0.04047085 -6.261065 -0.4239992 
-0.2135887 0.006490885 0.001760929 2.202656 4.896988 2.236904 
0.1075225 -4.341106e-05 -0.003092762 0.005388296 6.156912 -0.8186944 
-0.01988842 -0.06829158 -0.03885978 -0.8771392 -4.616799 -4.011743 
0.01343527 -0.05178253 0.0618026 -1.26779 6.073253 -0.9197333 
0.0634858 -0.04321545 0.0722902 -0.2471223 6.242292 -0.6211157 
0.0313107 -0.0384637 -0.1984896 3.890525 4.162313 -2.108188 
0.1768959 -0.003146083 -0.01499407 -0.02135916 6.022283 -1.568677 
0.1116824 -0.006272052 -0.02157879 0.1173911 5.306486 -3.353542 
0.07676883 -0.06489243 -0.06001198 0.8117264 -6.097669 -1.220596 
-0.1288314 -0.04122328 -0.04169688 -0.2856951 -0.0282928 -6.264942 
0.007233394 -0.0399973 0.1597782 -1.054906 6.076966 -1.157536 
-0.295101 -0.01803597 0.06634656 3.617075 -2.31667 3.023128 
0.085375 -0.09199707 0.1180916 -2.910761 -4.754943 2.539464 
0.3014225 -0.01717842 0.02567964 0.719941 3.625841 5.037049 
-0.1686627 -0.04495021 0.03757067 -0.5168194 -1.262718 6.114657 
0.1607694 -0.005862834 -0.02008826 -0.1823506 5.636801 -2.73157 
-0.09022182 -0.06798744 0.03483869 -0.513199 -3.608349 5.116801 
0.1996115 -0.08843387 -0.002168992 0.7157569 -5.575274 -2.421138 
0.2319261 -0.04768828 -0.04312275 0.05143504 -0.8934392 -6.190479 
0.07152418 -0.0417248 0.1044325 0.9312832 6.162127 0.146414 
0.1707693 -0.03397395 -0.04231344 0.01154673 1.639918 -6.049907 
0.1896107 -0.02287261 -0.03792553 0.007191887 2.984245 -5.510653 
-0.04155219 -0.04315934 -0.2644674 -0.4009066 -6.078063 -0.1080925 
-0.311647 0.0608014 -0.006594216 -0.0451033 0.09708259 -6.281338 
-0.3350033 0.1059698 -0.006080333 0.1686181 0.2780449 -6.228639 
-0.04454033 -0.03538684 -0.2532797 -1.268825 6.075753 0.7416596 
0.04973269 -0.05348493 -0.1466593 0.7601918 -6.169514 -0.8307599 
0.02614202 -0.04741028 -0.07847308 -0.9535745 6.168831 0.6670679 
0.3068976 -0.02807528 0.03087238 1.488651 2.57142 5.525618 
-0.02135424 -0.06204986 0.0833438 -2.544871 3.606752 -3.584933 
-0.1171264 -0.002878269 -0.01388014 0.02420592 5.742695 -2.494535 
0.2602992 -0.004316241 0.01566797 0.2982264 5.766667 2.367712 
-0.3416629 0.04339308 0.004252216 -1.188749 -0.5856148 6.080164 
0.04306241 -0.06842641 0.05306975 0.2198794 -6.221363 0.8464249 
-0.006288091 -0.06087463 -0.1532845 0.21581 -3.796597 -4.687579 
-0.1461802 -0.07950013 0.005707522 -1.074344 -6.059289 1.189891 
0.1150331 -0.06617442 -0.03723881 0.06238603 -3.750851 -4.999277 
0.04787838 -0.06251191 0.1067656 0.1509432 -3.430796 -4.657146 
-0.3590829 0.07560463 -0.002737673 -3.473793 -1.530735 -4.214486 
0.02986629 -0.0937317 0.07877931 -0.5578637 3.948168 4.338372 
-0.3141853 0.02124954 -0.005975396 -0.4786617 -0.4342569 -6.247249 
0.01368851 -0.05333219 -0.04499104 -0.8397126 5.296315 -1.98618 
0.01428106 -0.05880996 -0.120407 0.09304495 -6.222068 -0.8352849 
0.04630718 -0.06580049 0.06988906 0.3282005 -6.196021 0.9474149 
0.006296194 -0.06895433 -0.04275368 -0.2114932 -6.131999 -1.33088 
-0.2329911 -0.05951109 -0.0002176578 -1.971396 -5.921737 0.08738334 
0.1982571 -0.02491705 0.03924285 0.2925653 2.855181 5.52219 
0.08255706 -0.04304051 0.08665567 0.9901925 6.152092 0.3140947 
-0.0319135 -0.04409472 0.2630846 -0.09576643 -6.187882 0.7990586 
0.2480819 -0.02409836 0.03771576 0.4666022 3.399851 5.215311 
0.07042664 -0.05677311 0.1182241 1.329193 -3.089091 5.115276 
0.007051949 -0.06530594 -0.07195085 -0.4442217 -6.231666 -0.6380068 
0.1047564 -0.01759834 -0.03469654 0.03712173 3.690355 -5.077003 
-0.1458191 -0.008988397 0.02618618 -0.08583999 5.021472 3.734658 
0.1473977 -0.004307183 -0.01622524 0.06077214 5.954508 -1.947534 
0.1437634 -0.07058149 0.104356 4.608327 -3.164814 1.91177 
0.00785611 -0.06132005 -0.1439269 0.7020539 -4.451509 3.921013 
-0.0286882 -0.05337667 0.1914978 -0.8058969 -3.474957 5.030248 
0.148693 -0.005645227 0.01991169 0.009413311 5.275119 3.402387 
0.2554028 -0.03758478 0.04100257 0.3019737 1.672521 6.031594 
0.1896955 -0.0003695045 0.002973233 0.008223018 6.211543 0.6274149 
0.1632705 -0.08639422 0.007135718 0.03986014 -6.146885 1.240327 
-0.3376145 -0.009735651 0.05730644 -0.4430755 6.21179 -0.7009026 
0.1414241 -0.07445073 0.09240502 3.322323 1.091485 -4.927709 
0.2345753 -0.04123488 0.04357571 0.1064901 0.3658434 6.224517 
-0.05739911 -0.03815977 -0.2653839 -3.666269 1.004041 0.751329 
0.2724678 -0.04408874 -0.04144023 0.4679266 0.06535186 -6.199235 
0.18946 -0.03129631 -0.04146581 -0.05006648 1.990073 -5.955783 
-0.3187231 -0.01716929 0.09276525 1.630866 -5.4094 1.795321 
0.1180085 -0.08720256 -0.002766432 -0.02675517 -6.23676 -0.4655665 
-0.3453996 0.04377219 0.003320145 -2.148423 -1.391266 5.450012 
0.08272311 -0.05455808 0.106989 2.721418 1.304 -3.798476 
0.2693269 -0.1056881 -0.0003209077 -5.885379 1.014549 -0.03977215 
-0.174926 -0.05850115 -0.0312464 -1.102164 -3.340421 -5.201877 
0.1352601 -0.06207357 0.1235626 1.034932 4.920362 3.692018 
0.02512929 -0.005302113 -0.02064729 -0.1070243 5.287339 -3.333138 
0.01426733 -0.0340666 -0.04254027 9.487084e-05 1.181126 -6.169241 
-0.3479103 -0.005666394 -0.1019591 -0.1782989 6.245906 0.6555743 
0.03536594 -0.06831888 0.06453084 1.611824 -5.263882 -2.313442 
-0.3285986 -0.001079272 0.005030917 -1.996986 4.867499 2.926778 
0.1088072 -0.08573962 0.01243188 0.3482107 -6.123364 1.285063 
0.01404189 -0.06940306 0.04253768 -0.4600677 -6.070833 1.388173 
-0.068558 -0.03015792 0.3157411 -1.416357 0.5247652 5.734538 
-0.1862781 -0.05675977 -0.02990562 -1.191871 -3.498103 -5.080708 
0.02257726 -0.03613146 0.2093159 2.695378 5.259136 1.021467 
0.2773227 -0.1183798 0.003492138 -1.438407 -5.60244 0.5057927 
-0.1204436 -0.04723747 0.04139708 -0.1952243 -1.268683 6.131627 
-0.3511335 -0.004761216 -0.1113677 -0.2124661 6.248507 0.5367576 
0.3637835 -0.05029871 -0.01484471 3.238871 -0.6447578 -5.270742 
-0.04050058 -0.04686633 -0.2323366 -1.110366 -6.04067 0.0006633103 
-0.06071918 -0.09346502 0.002729783 0.1805951 -3.982221 3.957874 
-0.3443684 -0.01631518 -0.1032905 -0.3901231 -6.250161 -0.438138 
-0.2165346 -0.02382375 -0.03129581 -1.04058 1.543341 -5.980673 
-0.02537371 -0.03587745 0.2236634 -1.060197 6.102179 -1.046634 
-0.2869963 0.01483996 0.007413915 0.05344623 -0.03232785 6.275531 
-0.3510581 -0.005625173 0.104181 -0.1602765 6.204794 -0.8444484 
-0.07697554 -0.02867817 -0.04121444 -0.1627219 1.805107 -5.96979 
0.01197181 -0.05282341 -0.05990005 -1.282242 6.093243 0.8064013 
-0.2366037 0.01733053 -0.004163015 2.15488 2.903555 -4.832968 
-0.266469 -0.0350287 0.02211956 -1.429551 -2.105752 5.654465 
0.274675 -0.02803695 0.03735544 0.5989827 2.27338 5.807167 
0.2938895 -0.04940993 -0.03737767 0.8437176 -0.8280842 -6.161822 
0.09843516 -0.01165037 -0.02887011 -0.1973616 4.913535 -3.895372 
0.1072116 -0.04546416 0.05207423 1.983051 5.544361 1.20676 
-0.3026109 -0.0103784 -0.06354751 1.254859 6.134679 -0.2097494 
0.1279455 -0.05895352 -0.1018078 0.4523572 5.481633 2.980984 
0.07902673 -0.08861134 0.01390526 -0.0300446 -6.072163 0.8996058 
0.1406182 -0.08923463 -0.1076301 3.561264 3.786396 -1.660687 
-0.2039806 -0.03367349 0.03388483 -0.8315306 0.1782327 6.187259 
-0.3213115 -0.03265587 -0.0008695757 -1.944103 -5.894051 -0.1569312 
0.1174827 -0.05511663 -0.1072757 0.7346083 5.497165 2.565455 
0.001421794 -0.04621614 0.13048 -1.182321 6.095674 -0.8576812 
-0.03443014 -0.05476642 -0.04140482 -0.006833546 -1.596597 -6.072844 
0.02035309 -0.05237423 0.1783503 0.5353121 -6.20395 0.8308735 
0.05028494 -0.04140428 0.1630696 3.890261 4.118789 1.798184 
0.1344978 -0.01822527 -0.03509374 0.02358834 3.622686 -5.124509 
-0.3153273 -0.0246 0.02133187 -0.1699605 -5.645188 -0.3939883 
-0.3193759 -0.02045822 0.06862763 -0.6060481 -6.189209 0.7864183 
-0.06042398 -0.07879037 -0.02557993 0.1210812 -5.212401 -3.50616 
-0.06101623 -0.0402263 -0.2897276 -2.442341 -5.285878 0.4703879 
0.309835 -0.08012652 0.01461996 1.519409 -3.97469 4.467105 
-0.3178343 0.04462196 -0.006357393 -0.301154 -0.1636069 -6.272483 
0.1800849 -0.008906806 0.02561325 -0.006302183 5.51144 2.996622 
0.1368254 -0.08662027 0.1295153 1.022134 -2.220886 5.729003 
0.3261863 -0.03247254 0.02626507 1.542579 2.315107 5.529796 
-0.3449285 0.06659798 -0.004757103 -0.4991364 -0.1953046 -6.259407 
0.06903118 -0.06225008 -0.07762206 0.6077323 -6.164619 -1.04535 
-0.01246627 -0.01892629 -0.03578499 -0.02596933 3.598411 -5.145034 
-0.03982241 -0.02941574 -0.2907078 -0.5451463 6.069234 0.8111779 
-0.1702899 -0.03420178 -0.03797106 -0.4645751 0.6151307 -6.211401 
-0.324464 0.09524515 0.006204917 -0.09525 0.02212434 6.268483 
0.02813781 -0.05240681 -0.1699098 0.7860256 -6.117895 -0.969107 
0.001005066 -0.05874787 -0.1542079 0.1595178 -3.732978 -4.982425 
0.1211193 -0.09780726 0.1015401 -0.1469516 -5.557975 -2.815036 
-0.04498097 -0.0461014 0.0430137 0.002863029 -0.714116 6.22504 
-0.01872937 -0.03873304 0.199228 -1.314222 6.017728 -1.181174 
-0.2831542 -0.0218044 -0.04647984 2.847305 -4.434765 -2.613833 
-0.008012922 -0.04402509 0.1568104 -1.552145 5.969866 -1.043254 
0.1096624 -0.003336603 0.01627497 0.01537763 5.706326 2.605539 
-0.01067691 -0.03671378 0.2022453 -1.022616 6.114766 -1.001098 
-0.327093 -0.02002688 0.06781168 -0.2237889 -6.212422 0.2775193 
-0.1893488 -0.01565912 0.03014011 -0.4920155 3.466782 5.204051 
-0.02440749 -0.04468523 -0.1726595 -2.532481 5.414977 1.547519 
0.03683292 -0.06149147 0.1006576 0.1576702 -6.210106 0.8860361 
-0.2273424 0.01072703 -0.003991208 1.672747 3.418433 -4.6651 
-0.1646629 -0.03687614 0.03843364 -0.4830196 0.29526 6.227472 
0.07927644 -0.04383361 0.06544995 -0.02578132 6.248013 -0.4699548 
0.01985586 -0.1101529 0.06821642 1.264518 -4.809402 0.4748837 
-0.03139275 -0.02806796 -0.2958094 0.336403 6.21626 0.4394697 
0.2109378 -0.01756386 0.03453061 -0.2054606 3.417086 5.226799 
-0.3155198 0.02486756 0.005848375 -0.3354021 -0.4629066 6.24376 
0.02075663 -0.02021596 0.0367041 0.07728956 3.407285 5.276198 
0.178195 -0.08730841 -0.003521305 0.02461639 -6.209947 -0.6496179 
0.2261086 -0.08590089 -0.01117741 -0.001462667 -6.121284 -1.356513 
0.2185992 -0.05351478 -0.04181931 -0.003064262 -1.507348 -6.091925 
0.323386 -0.0781071 0.00852614 1.525433 -5.888324 1.519904 
0.04450752 -0.004857862 0.01899176 0.009842465 5.168895 3.529374 
0.2187566 -0.03211384 -0.04164579 0.07557102 1.840392 -6.004813 
0.05911646 -0.06185256 -0.08609752 0.4824105 -6.211131 -0.8079823 
-0.007434526 -0.04856505 0.2245054 0.7811296 -5.888063 1.957985 
0.01687234 -0.01922805 0.03605064 0.02402368 3.471531 5.236734 
-0.1994107 -0.03827867 0.03446651 -0.8006169 -0.4131379 6.19045 
0.05461994 -0.05027996 0.1539336 2.962575 -4.721174 2.35988 
-0.0003723726 -0.03495919 -0.2060115 -0.8350159 6.142366 0.9992256 
-0.06092624 -0.08820196 -0.005492092 -0.6950709 -4.007844 -4.596109 
-0.3438376 -0.02330842 -0.007117413 -1.711913 -4.717873 -3.585456 
0.218957 -0.005552426 -0.02031755 -0.2893649 5.540169 -2.889839 
0.3236331 -0.06450272 0.02650533 1.712044 -3.147243 5.159289 
0.001321924 -0.04999656 0.2059606 0.3374284 -6.215364 0.8475531 
0.2125286 -0.004098426 0.01808397 0.2474286 5.619398 2.726256 
-0.3475242 -0.01604772 0.09470896 -0.4128617 -6.239693 0.341586 
-0.1900656 -0.003736663 0.01688266 0.003367317 5.415369 3.151137 
-0.2308982 -0.05813504 0.01082005 -1.650695 -5.724532 1.918855 
-0.3277777 0.02446913 0.005069954 -0.6815094 -0.1335742 6.234864 
-0.344364 0.08958526 0.005548409 -0.4707777 0.1179761 6.254009 
-0.3183888 0.03654874 -0.006081315 -0.3423326 -0.3265997 -6.263699 
-0.06158167 -0.0381666 0.3156585 0.7835723 -1.805115 5.664841 
-0.3511841 -0.01375543 0.1214425 -0.4559134 -5.651113 2.11743 
0.07197042 -0.04230184 0.08462359 0.252096 6.265357 -0.276447 
-0.008612308 -0.03166197 0.246941 0.2739014 6.249531 -0.4314602 
0.02450245 -0.04296225 -0.1187617 -1.099676 6.125621 0.6717828 
0.06149876 -0.04245102 -0.09147672 -0.258314 6.257954 0.2965383 
-0.01088044 -0.06538287 0.0590457 -3.495361 -4.342968 0.1761683 
-0.2580488 0.01444978 0.007621008 0.3817169 0.4681411 6.250353 
-0.03550457 -0.04817123 0.1874857 -3.966779 3.01605 1.533957 
-0.3447287 -0.01054836 -0.05574635 -1.818228 5.728975 1.127014 
-0.2665456 0.01788254 0.007772535 0.0407077 0.4934574 6.253684 
-0.1131019 -0.04795684 0.04148221 -0.2789422 -1.234459 6.096334 
0.07211172 -0.07997174 -0.02456409 -0.1241783 -4.441624 -4.389417 
0.2884202 -0.009211429 0.02012737 0.7855347 5.140816 3.479596 
0.0006349868 -0.04398198 0.2450683 1.823979 -5.726471 1.58331 
0.06279837 -0.04359841 0.06903896 -0.3123804 6.219501 -0.7674724 
-0.00445138 -0.05200989 0.1927641 0.1653645 -5.628366 2.248517 
0.3100181 -0.05465538 0.03426272 1.221075 -1.073794 6.054384 
0.01374276 -0.05783442 -0.129932 0.08167487 -6.268895 -0.333167 
-0.3356215 -0.01057832 0.04858214 -0.3984667 6.205763 -0.8196934 
0.1074319 -0.07686982 -0.1322427 -0.4978829 0.3754169 -6.198774 
0.06335899 -0.07493836 0.1190437 -1.673812 0.7336525 5.578976 
-0.340999 0.03284602 0.003270438 -2.668833 -1.356395 5.03128 
-0.1011616 -0.0850047 -0.0005383619 -0.5086386 -6.237639 -0.01666274 
-0.2782706 0.06085913 -0.003033244 3.350131 3.104464 -3.694763 
0.01362683 -0.0547459 0.1630508 0.1295226 -6.250746 0.5601985 
-0.08078358 -0.07409448 0.03059009 -0.2660142 -4.500443 4.33574 
-0.2899665 -0.01292028 0.04835113 1.568363 6.010108 0.3528834 
-0.3572944 0.09363798 0.004263077 -0.4525037 -0.1898707 6.240685 
-0.01461493 -0.04507744 -0.2441338 0.14965 -6.219728 0.03569582 
0.004601473 -0.03573754 0.1940528 -0.5807958 6.186322 -0.8182381 
0.04061988 -0.1043482 0.0807663 2.789145 -0.3598424 5.176208 
0.0008319126 -0.03271662 -0.2257099 0.07988419 6.267212 0.2101789 
-0.005369387 -0.05767997 -0.1404749 -0.0749426 -4.885103 3.254854 
-0.2564374 0.02863919 0.005994697 1.134685 1.421772 5.92114 
0.2468685 -0.01472667 -0.03183747 0.4708171 4.03547 -4.770554 
0.1017938 -0.03108566 -0.04145459 -0.06066251 1.991917 -5.948821 
0.02273328 -0.006484498 0.02203208 -0.189087 5.088648 3.650377 
0.05917076 -0.06804466 -0.04828926 0.4210588 -6.125713 -1.317623 
-0.08639817 -0.0009388113 0.009046229 0.01675559 6.198366 1.024212 
0.02710461 -0.0401788 -0.1407615 -0.9541113 6.131326 0.9843016 
0.1214796 -0.07737512 0.1324938 0.09848286 -0.06887438 6.177999 
0.1155586 -0.07465889 0.03118101 -0.03555906 -4.405882 4.432619 
0.0377293 -0.04040766 0.04282419 0.002839265 0.696829 6.239859 
0.05674873 -0.0401989 0.1370873 1.306424 6.093124 0.2288808 
0.1226048 -0.05815594 0.1035727 0.1785257 5.58692 -2.745337 
0.008023906 -0.06287662 0.1462872 0.7222562 -5.467306 -1.456551 
-0.3088843 0.08419713 -0.006119345 0.6693147 0.6206638 -6.152531 
0.06787612 -0.08818025 -0.1110178 -3.304266 -5.122633 0.6446465 
0.1568589 -0.05385815 0.04091437 0.1358628 -2.028396 5.931231 
-0.2781635 0.03336607 -0.006917342 0.03209566 0.2588802 -6.277322 
-0.03272814 -0.03332057 -0.2540964 -1.057308 6.099931 0.9605662 
0.1177096 -0.05104637 0.0440638 2.831421 0.1135528 5.393027 
-0.2797626 -0.01441336 0.02590621 0.9338042 6.179425 0.1603827 
0.02653543 -0.0455738 0.09058904 -1.111 6.130591 -0.4192176 
-0.358212 0.08645782 -0.004408273 -1.114578 -0.4252509 -6.129989 
0.00410213 -0.03292178 0.2383589 1.829426 5.85247 -0.01576482 
-0.01884546 -0.07999503 -0.02361716 -0.006610068 -5.157127 -3.587427 
-0.2958264 0.0715007 0.006081495 0.9075826 0.8739561 6.079989 
0.0642386 -0.08554617 -0.1140731 -3.147785 -5.005138 -1.052748 
0.0239929 -0.04950767 0.0656242 -1.167529 6.054915 -1.176304 
0.06597894 -0.07033519 -0.1180831 -0.954326 1.854387 -5.827679 
0.07049224 -0.0525609 -0.1243297 3.209544 -4.221659 -2.800347 
-0.3296258 -0.008758613 -0.06503771 0.06162881 6.270077 0.3086907 
-0.2930567 -0.01184888 -0.04926982 1.326418 6.09642 -0.2627349 
-0.004655473 -0.03184339 -0.2410902 0.1484298 6.265523 0.3652768 
-0.02768703 -0.05352561 -0.1474008 -4.028462 4.11531 0.7177497 
0.007783234 -0.03333617 -0.2185225 0.3793582 6.263787 0.2280711 
-0.07497626 -0.03213882 -0.3095967 -5.291952 0.7744774 -0.4038719 
-0.1099419 0.0003950785 -0.0001714616 -0.04770854 6.211915 -0.08301386 
0.01054913 -0.08785356 0.00474121 0.8340751 -4.507408 3.777912 
0.0422168 -0.07162287 0.0359996 0.2117252 -5.743286 2.401927 
-0.04256502 -0.0855893 0.009958393 0.06421414 -6.190879 1.041788 
0.190615 -0.04075561 0.04358679 0.000721662 0.1545654 6.229486 
0.2617021 -0.07894664 -0.02426981 0.2458452 -5.187869 -3.530998 
0.06134656 -0.00253242 -0.01335881 -0.07681672 6.167506 -0.9481969 
-0.2611529 -0.04921595 -0.01008152 -1.655675 -5.537582 -2.400292 
-0.1203763 -0.07683049 0.0227663 -0.544475 -5.237486 3.417972 
0.01092732 -0.0350068 0.1978144 -0.2112723 6.255751 -0.4444707 
-0.006935515 -0.04322907 -0.2548485 1.062491 -6.05617 -1.246701 
-0.3538581 0.08891923 -0.004907787 -0.4619203 -0.209431 -6.261373 
0.001930445 -0.03680087 0.1889981 -0.7552331 6.149244 -0.9676778 
-0.3525646 -0.0132187 -0.1221349 -0.2096174 -4.953301 -3.039632 
-0.3523263 -0.009248428 0.07756766 -2.753716 5.228355 -0.954277 
-0.1535801 -0.07533275 -0.01683975 -0.9704783 -5.486017 -2.887532 
0.1312604 -0.02909163 -0.04076067 -0.07567301 2.255934 -5.852055 
0.01348585 -0.003165289 0.01608181 0.01828528 5.638466 2.68363 
0.2338976 -0.003599222 -0.01631127 0.1165928 5.829482 -2.16306 
0.2323282 -0.0003433934 0.0002324188 0.01056627 6.230043 -0.09870187 
0.0318654 -0.1145224 -0.0559589 -0.453974 -4.715622 3.458197 
-0.09739932 -0.0137177 -0.03133501 -0.125459 4.720593 -4.083243 
0.1959875 -0.04446065 0.04329574 -0.225462 -0.4643076 6.224853 
0.03280357 -0.05011576 -0.04391812 -1.38879 5.999177 0.7115252 
-0.3155317 0.03157727 -0.00606091 -0.577692 -0.1448091 -6.251776 
0.3055291 -0.009960864 -0.01595098 0.7164938 5.613772 -2.59192 
-0.2206955 -0.03434824 -0.03153119 -1.398338 -0.4054529 -6.097396 
0.04975883 -0.03147449 0.04156741 0.1093652 1.120257 6.092955 
0.1667188 -0.08555623 0.01240756 0.00109183 -6.155754 1.225664 
-0.3447751 -0.0120629 -0.04972259 -3.284581 4.336307 1.478549 
0.1349977 -0.05727805 -0.04075424 0.04770664 -1.666796 -6.057053 
-0.304614 0.04985036 -0.00676271 -0.07569137 -0.001169831 -6.281689 
0.007031247 -0.1121573 -0.0661475 -1.235213 -3.386895 -4.791818 
0.3343809 -0.07491662 0.00897578 1.740329 -5.772579 1.667086 
-0.003437916 -0.06101003 0.1531218 0.3018951 -3.95592 4.491331 
-0.3328189 -0.01230945 0.03240848 -0.2450552 6.196802 -0.9755699 
0.01019466 -0.01540356 -0.03319992 -0.2325945 4.12643 -4.687054 
0.03662984 -0.09860036 -0.05325209 0.8130862 1.413147 5.938337 
0.0300543 -0.06791466 0.05715889 -0.08774356 -6.246621 0.6321769 
-0.05088747 -0.04632596 -0.04334591 -0.0005856805 -0.7460151 -6.21967 
0.2570611 -0.08032265 0.02224956 0.2419125 -5.226193 3.4677 
0.05104791 -0.003454184 -0.01682464 0.01407511 5.829833 -2.163139 
0.3169419 -0.04651726 0.033482 1.710392 -0.2159889 5.991603 
0.06598978 -0.0432918 -0.06796224 -0.3206042 6.245259 0.2176688 
0.2811774 -0.091902 0.01059964 0.2129739 -4.42939 3.849864 
-0.3281443 -0.02552384 -0.01144809 -1.392141 -4.698516 -3.869407 
0.3262984 -0.04332768 0.03030111 1.793119 0.6369166 5.911461 
0.2874613 -0.0788417 -0.02106634 0.7768898 -5.200284 -3.429536 
0.02058848 -0.04566013 -0.1021003 -0.8536809 6.189819 0.5384103 
0.2893346 -0.1040053 -0.002481762 5.753596 1.718704 -0.6205211 
0.0009001337 -0.05878325 -0.1198056 -0.2960771 -6.237316 -0.6842157 
0.01279159 -0.05282187 0.1787892 0.2555109 -5.982905 0.5768691 
0.2748094 -0.01368579 -0.02818988 0.6837066 4.4879 -4.280645 
-0.05108405 -0.04219805 -0.2610953 -2.472863 -5.281523 -0.5235284 
-0.1190805 -0.002857685 0.01538335 -0.02220736 5.899276 2.089015 
0.1409767 -0.006481279 0.02145367 0.178342 5.393521 3.197277 
-0.2068911 -0.02444893 0.03243423 -0.575784 1.015769 6.158172 
-0.01904592 -0.07268007 0.0865754 -2.268103 -4.696777 1.246936 
0.1145521 -0.06745344 -0.09358885 -0.1831012 2.746349 5.558321 
-0.3347553 -0.01012431 -0.05203061 -0.2212087 6.246329 0.6409107 
-0.002243945 -0.01721439 -0.03455953 0.04907497 3.868493 -4.931662 
-0.1017573 -0.07343947 -0.02971456 -0.4177472 -4.636099 -4.161033 
-0.2061003 -0.0090625 -0.0238397 -0.2614905 4.681587 -4.084612 
0.02134716 -0.09983395 0.05591128 2.273815 2.164247 -4.88028 
-0.2370779 -0.0006712641 -0.01009093 0.5204306 3.91593 -4.735516 
-0.1384968 -0.08147076 2.878322e-05 -1.153533 -6.141621 0.2097551 
-0.3283533 0.02763855 0.00500562 -0.8187576 0.0006780665 6.22216 
0.06496102 -0.06877658 -0.04269806 0.5139812 -6.135014 -1.210321 
-0.1685077 -0.0004683746 0.006131337 0.1001814 6.100815 1.401693 
0.05522692 -0.04244555 0.08847535 -0.3330484 6.241589 -0.6123033 
0.06799732 -0.04357257 -0.06198858 -0.3878977 6.239015 0.4658961 
0.2999817 -0.05128655 -0.03661563 0.3439627 -0.6417005 -6.223337 
-0.05131572 -0.07775743 -0.02692415 0.01930691 -5.234908 -3.474424 
-0.1251602 -0.03794217 -0.04169171 -0.1801664 0.6173813 -6.215315 
0.3146351 -0.01230373 -0.0166059 1.294631 5.290759 -2.975137 
-0.1031553 -0.07178335 0.03041965 -0.5330609 -4.05765 4.752503 
0.01334129 -0.0621511 -0.1471633 1.024349 -5.402905 1.16792 
-0.2697459 -0.01249761 0.02108155 0.04885525 3.67371 5.030557 
0.02523899 -0.0528447 0.1726554 0.4825858 -6.180389 1.008716 
0.002721692 -0.1094972 0.06957418 -4.110377 -3.054192 -3.241034 
0.1799302 -0.01865464 -0.03536873 0.05201384 3.332623 -5.320739 
0.2807312 -0.06046191 -0.03724519 0.6001585 -1.905123 -5.913443 
0.2820255 -0.03392297 0.03820474 1.137183 1.711032 5.929851 
-0.0127917 -0.04608522 -0.1475639 -1.286913 6.077781 0.8321449 
-0.01144518 -0.06487995 -0.05698228 -4.20971 -3.034381 -0.5001442 
-0.2138902 -0.05524223 0.02402833 -1.406155 -4.195548 4.367065 
-0.02732076 -0.04628235 -0.2350878 0.3471354 -6.22184 -0.7930334 
-0.3487474 -0.01624162 0.0851654 -0.7383986 -6.226054 0.04309735 
0.01772413 -0.04939805 0.2006806 0.7315478 -6.156013 0.9719466 
0.1364992 -0.07682277 -0.1313213 1.276151 0.4281883 -6.056301 
-0.3388084 -0.01015673 0.05469479 -0.8225675 6.128971 -0.6925489 
-0.3111799 0.08235829 -0.006311656 0.248074 0.2376949 -6.261331 
0.184932 -0.07423598 -0.03186406 0.02394762 -4.132407 -4.658296 
0.04746785 -0.04584107 0.06226993 -0.988902 6.01281 -0.6295592 
0.07921202 -0.04790984 0.1147245 3.908855 3.191271 3.234339 
-0.05096365 -0.04005698 -0.04352618 -0.0005339815 0.4330369 -6.24013 
0.01348503 -0.06640496 0.07007692 -1.663121 -5.686207 1.324297 
-0.0509405 -0.02916843 -0.2993893 -0.9606141 6.003253 1.530543 
0.01057991 -0.06024094 -0.1436573 0.8829033 -4.194279 4.397597 
0.01344062 -0.04861812 -0.08848418 -1.359272 6.064309 0.8362725 
-0.1195478 -0.0375168 -0.04182252 -0.08718733 0.6646125 -6.220705 
0.2394632 -0.045162 -0.04323265 0.303302 -0.4306515 -6.229928 
-0.263584 -0.03170943 0.02363278 -1.340807 -0.9769668 6.002666 
-0.2994637 -0.02276816 0.0549747 0.1877787 -6.207029 0.881892 
-0.3388197 -0.00594792 -0.09769358 0.02939352 6.257751 0.5475608 
0.2324411 -0.03125378 -0.04146213 -0.03696773 1.952595 -5.961847 
0.03387288 -0.04569996 -0.08619967 -1.367159 6.011359 0.8789929 
0.02671079 -0.05162767 0.04440996 -0.9846978 6.029927 -0.3682676 
-0.02769325 -0.02950092 0.3050027 2.978139 4.665303 1.49805 
-0.002316 -0.08591019 -0.01011189 -0.02861303 -6.162446 -1.177128 
-0.05804143 -0.04045406 0.2856579 -1.514742 -5.452274 1.119795 
0.09563559 -0.04213171 -0.04451948 0.01208433 3.174714 -5.252377 
0.1991667 -0.05556361 0.04156556 -0.357551 -1.462913 6.085609 
0.06445801 -0.07632945 0.1055609 -2.534522 0.3732466 -5.628279 
-0.03456245 -0.05813813 0.1826504 -1.086871 -4.715414 -2.306 
-0.1247732 -0.06681491 -0.03318907 -0.483269 -3.710806 -5.027723 
0.09850949 -0.07447094 0.03074494 -0.08672278 -4.301692 4.55608 
-0.03518045 -0.02976893 -0.2824192 -0.6427047 6.219596 0.2728401 
-0.2969458 -0.02533761 -0.02973161 -0.06183725 -6.246149 -0.6461031 
0.1343513 -0.04455478 0.04348231 0.01990923 -0.5239418 6.205672 
0.04261134 -0.04486522 0.07523867 -0.7471622 6.201912 -0.6542848 
-0.04068925 -0.03624102 0.2392582 -1.479503 5.981434 -1.103507 
0.0394382 -0.04010143 -0.04353626 -0.01307044 0.5746422 -6.233841 
0.3587637 -0.05461513 0.01692023 2.952836 -1.985278 5.066761 
-0.2830387 -0.003762858 0.0142336 0.551091 4.891088 3.824786 
-0.2922102 0.00140376 0.007901205 -0.7137354 2.675851 5.312488 
0.03016264 -0.06838679 -0.05208265 -0.122395 -6.178124 -1.056387 
0.2423985 -0.05641697 0.04078221 0.07595785 -1.54452 6.083302 
0.2903389 -0.06385998 -0.03444228 0.8771371 -3.108684 -5.377868 
0.05615692 -0.05424988 0.1382188 1.681596 -5.823889 1.312119 
-0.04533416 -0.02923352 -0.04153174 0.0002770648 1.705731 -6.03153 
0.2072268 -0.07534935 0.02997742 0.06997172 -4.477995 4.362686 
-0.2283645 -0.02803571 0.03022689 -0.8407698 0.1850531 6.159002 
-0.01968133 -0.04884924 -0.1463581 -2.728538 5.08258 1.431599 
0.1183625 -0.0478403 -0.04433943 2.339346 0.3093304 -5.646141 
-0.2277032 -0.0305422 -0.03024042 -0.8646362 0.1496685 -6.200908 
0.02729329 -0.04667415 -0.08857808 -1.146909 5.858314 0.7782469 
-0.3379079 0.07988945 -0.005758326 -0.3523802 -0.2423276 -6.265277 
0.01977283 -0.0354538 0.1891255 -0.07973221 6.245642 -0.302328 
-0.2793016 -0.01373984 0.02231257 -0.362543 5.227412 3.029235 
-0.02863058 -0.03300644 0.2468818 -0.9362603 6.156295 -0.7413179 
-0.04342085 -0.04654146 -0.2416281 -0.4644045 -6.126753 0.7433614 
0.02412073 -0.0437322 -0.04353889 0.008322767 -0.1074126 -6.255085 
-0.05165152 -0.07502498 -0.0307274 -0.0006879448 -4.401669 -4.387605 
-0.2974228 -0.0116017 -0.01936207 -0.3162563 4.242086 -4.22611 
0.03400972 -0.08244684 0.06951435 5.744972 -0.5412647 -0.1312114 
-0.3155506 -0.01210259 -0.02439086 0.08000673 6.228816 0.5355383 
0.03907883 -0.1122775 -0.06545398 2.294096 -2.678555 -4.607505 
-0.05109347 -0.03053741 -0.2922058 -1.149852 6.138506 0.6154633 
-0.3412163 0.06019621 0.005143932 -0.6433385 -0.1426783 6.247149 
-0.2109984 -0.05923035 -0.0205602 -1.474281 -4.96396 -3.536762 
0.008425984 -0.0496969 -0.1990294 0.4022437 -6.189753 -0.9436595 
0.2718011 -0.01246497 0.02667155 0.1089944 4.633403 4.161245 
-0.1131252 -0.03004573 0.04015414 0.001651619 1.891067 5.958474 
-0.3458164 0.1151316 0.005096633 -0.2126708 2.461864 5.5202 
0.2360023 -0.02741234 0.04037039 0.06408162 2.426406 5.762636 
0.08540655 -0.08830731 -0.006772129 0.06093124 -6.243829 0.6425036 
0.03009061 -0.002326417 -0.01330627 0.03820183 6.114923 -1.358195 
0.07048462 -0.08921283 -0.1150394 -2.273798 -5.383193 -1.417336 
0.09238323 -0.08764038 0.004197381 0.3165736 -6.263511 -0.3292704 
0.1188877 -0.08992082 -0.1291636 0.08745432 -3.487437 -5.190922 
-0.3023778 0.06088439 0.006599828 -0.05254463 -0.02447181 6.276822 
0.03457363 -0.07027818 -0.07400832 2.47172 -1.894564 -5.317297 
-0.3316872 -0.0127281 0.02915177 -0.4755461 6.196857 -0.7935994 
-0.217312 -0.04794779 0.02796115 -1.712422 -3.206919 5.089369 
-0.09717299 -0.007427509 0.0241025 -0.1731024 5.181842 3.540324 
0.1020837 -0.03305849 0.0417074 -0.03308523 1.115027 6.152251 
0.3170367 -0.0707503 -0.02445791 1.369751 -4.064443 -4.549109 
-0.305099 0.01416991 -0.006627068 -0.506306 -0.3033627 -6.248232 
0.04656303 -0.0667991 0.06329218 0.2309105 -6.202438 0.9739629 
0.2390607 -0.005156591 -0.01931624 0.2356004 5.470335 -3.000033 
-0.2499991 0.007903362 0.007779739 0.4029112 0.7566088 6.210304 
-0.3352934 -0.01635993 0.1035472 -0.3270367 -6.196398 0.875231 
0.05643574 -0.06030622 -0.09988569 0.7443447 -6.154992 -0.9944296 
-0.006186354 -0.0599642 -0.1043742 -1.372323 -5.979347 -0.9218972 
-0.3259557 -0.01139435 -0.03604715 -0.1576308 6.254544 0.5772228 
-0.2501861 -0.05370653 -0.00641577 -1.750313 -5.867011 -1.329567 
-0.02491117 -0.06497513 0.08759159 -4.655446 1.167731 1.341433 
0.1641332 -0.07060583 -0.03439055 -0.005360439 -3.440017 -5.252712 
0.1278885 -0.08732416 -0.0003454575 -0.02310361 -6.260557 -0.1022126 
0.2756868 -0.07672966 -0.02648227 0.4191676 -5.036226 -3.720099 
0.02984216 -0.06093606 0.1163699 -0.9585509 -5.457636 2.748075 
-0.1621369 -0.05827298 -0.0335094 -0.7754384 -3.376194 -5.238737 
0.1735815 -0.02275484 -0.0378867 0.01024656 2.963953 -5.528437 
-0.007754864 -0.03567928 0.205864 -0.8580002 6.137715 -1.007642 
0.1997677 -0.03977274 -0.04343977 -0.00908155 0.6003924 -6.21474 
0.1134803 -0.04911709 0.04817965 4.815836 2.468114 2.866843 
-0.04781756 -0.02740793 0.04033425 0.1963301 1.952458 5.845984 
0.3546689 -0.03160747 -0.01358215 3.300856 3.981142 -3.268812 
0.1258623 -0.08508001 -0.01393419 -0.009663367 -6.008777 -1.827421 
-0.2373128 -0.003863806 -0.01473076 -0.08431157 5.504892 -2.997776 
0.02986813 -0.0492238 0.05735927 -1.555989 6.017869 -0.7197735 
0.2715963 0.0009072184 -0.002195349 2.242923 4.37786 -2.544033 
0.3201536 -0.03716877 -0.03094404 1.738982 2.155107 -5.625008 
0.02190893 -0.0535653 -0.1627616 0.07224458 -6.226034 -0.6136217 
-0.01566589 -0.05237715 0.1932927 0.01651726 -5.310093 3.089675 
0.266242 -0.061046 -0.03809717 0.4532915 -2.433769 -5.757723 
